64.000000 -768.000000 120.000000
64.000000 -768.549442 121.923048
64.000000 -769.098885 123.846096
64.000000 -769.648327 125.769144
64.000000 -770.197769 127.692192
64.000000 -770.747211 129.615239
64.000000 -771.296654 131.538287
64.000000 -771.846096 133.461335
64.000000 -772.395538 135.384383
64.000000 -772.944980 137.307431
64.000000 -773.494423 139.230479
64.000000 -774.043865 141.153527
64.000000 -774.593307 143.076575
64.000000 -775.142749 144.999623
64.000000 -775.692192 146.922671
64.000000 -776.241634 148.845718
64.000000 -776.791076 150.768766
64.000000 -777.340518 152.691814
64.000000 -777.889961 154.614862
64.000000 -778.439403 156.537910
64.000000 -778.988845 158.460958
64.000000 -779.538287 160.384006
64.000000 -780.087730 162.307054
64.000000 -780.637172 164.230102
64.000000 -781.186614 166.153149
64.000000 -781.736056 168.076197
64.000000 -782.285499 169.999245
64.000000 -782.834941 171.922293
64.000000 -783.384383 173.845341
64.000000 -783.933825 175.768389
64.000000 -784.483268 177.691437
64.000000 -785.032710 179.614485
64.000000 -785.582152 181.537533
64.000000 -786.131594 183.460581
64.000000 -786.681037 185.383628
64.000000 -787.230479 187.306676
64.000000 -787.779921 189.229724
64.000000 -788.329363 191.152772
64.000000 -788.878806 193.075820
64.000000 -789.428248 194.998868
64.000000 -789.977690 196.921916
64.000000 -790.527132 198.844964
64.000000 -791.076575 200.768012
64.000000 -791.626017 202.691059
64.000000 -792.175459 204.614107
64.000000 -792.724902 206.537155
64.000000 -793.274344 208.460203
64.000000 -793.823786 210.383251
64.000000 -794.373228 212.306299
64.000000 -794.922671 214.229347
64.000000 -795.472113 216.152395
64.000000 -796.021555 218.075443
64.000000 -796.570997 219.998491
64.000000 -797.120440 221.921538
64.000000 -797.669882 223.844586
64.000000 -798.219324 225.767634
64.000000 -798.768766 227.690682
64.000000 -799.318209 229.613730
64.000000 -799.867651 231.536778
64.000000 -800.417093 233.459826
64.000000 -800.966535 235.382874
64.000000 -801.515978 237.305922
64.000000 -802.065420 239.228970
64.000000 -802.614862 241.152017
64.000000 -803.164304 243.075065
64.000000 -803.713747 244.998113
64.000000 -804.263189 246.921161
64.000000 -804.812631 248.844209
64.000000 -805.362073 250.767257
64.000000 -805.911516 252.690305
64.000000 -806.460958 254.613353
64.000000 -807.010400 256.536401
64.000000 -807.559842 258.459448
64.000000 -808.109285 260.382496
64.000000 -808.658727 262.305544
64.000000 -809.208169 264.228592
64.000000 -809.757611 266.151640
64.000000 -810.307054 268.074688
64.000000 -810.856496 269.997736
64.000000 -811.405938 271.920784
64.000000 -811.955380 273.843832
64.000000 -812.504823 275.766880
64.000000 -813.054265 277.689927
64.000000 -813.603707 279.612975
64.000000 -814.153149 281.536023
64.000000 -814.702592 283.459071
64.000000 -815.252034 285.382119
64.000000 -816.000000 288.000000
64.000000 -817.994667 288.145951
64.000000 -819.989335 288.291903
64.000000 -821.984002 288.437854
64.000000 -823.978670 288.583805
64.000000 -825.973337 288.729756
64.000000 -827.968005 288.875708
64.000000 -829.962672 289.021659
64.000000 -831.957340 289.167610
64.000000 -833.952007 289.313561
64.000000 -835.946674 289.459513
64.000000 -837.941342 289.605464
64.000000 -839.936009 289.751415
64.000000 -841.930677 289.897367
64.000000 -843.925344 290.043318
64.000000 -845.920012 290.189269
64.000000 -847.914679 290.335220
64.000000 -849.909347 290.481172
64.000000 -851.904014 290.627123
64.000000 -853.898681 290.773074
64.000000 -855.893349 290.919026
64.000000 -857.888016 291.064977
64.000000 -859.882684 291.210928
64.000000 -861.877351 291.356879
64.000000 -863.872019 291.502831
64.000000 -865.866686 291.648782
64.000000 -867.861354 291.794733
64.000000 -869.856021 291.940684
64.000000 -871.850689 292.086636
64.000000 -873.845356 292.232587
64.000000 -875.840023 292.378538
64.000000 -877.834691 292.524490
64.000000 -879.829358 292.670441
64.000000 -881.824026 292.816392
64.000000 -883.818693 292.962343
64.000000 -885.813361 293.108295
64.000000 -887.808028 293.254246
64.000000 -889.802696 293.400197
64.000000 -891.797363 293.546149
64.000000 -893.792030 293.692100
64.000000 -895.786698 293.838051
64.000000 -897.781365 293.984002
64.000000 -899.776033 294.129954
64.000000 -901.770700 294.275905
64.000000 -903.765368 294.421856
64.000000 -905.760035 294.567807
64.000000 -907.754703 294.713759
64.000000 -909.749370 294.859710
64.000000 -911.744037 295.005661
64.000000 -913.738705 295.151613
64.000000 -915.733372 295.297564
64.000000 -917.728040 295.443515
64.000000 -919.722707 295.589466
64.000000 -921.717375 295.735418
64.000000 -923.712042 295.881369
64.000000 -925.706710 296.027320
64.000000 -927.701377 296.173271
64.000000 -929.696044 296.319223
64.000000 -931.690712 296.465174
64.000000 -933.685379 296.611125
64.000000 -935.680047 296.757077
64.000000 -937.674714 296.903028
64.000000 -939.669382 297.048979
64.000000 -941.664049 297.194930
64.000000 -943.658717 297.340882
64.000000 -945.653384 297.486833
64.000000 -947.648052 297.632784
64.000000 -949.642719 297.778736
64.000000 -951.637386 297.924687
64.000000 -953.632054 298.070638
64.000000 -955.626721 298.216589
64.000000 -957.621389 298.362541
64.000000 -959.616056 298.508492
64.000000 -961.610724 298.654443
64.000000 -963.605391 298.800394
64.000000 -965.600059 298.946346
64.000000 -967.594726 299.092297
64.000000 -969.589393 299.238248
64.000000 -971.584061 299.384200
64.000000 -973.578728 299.530151
64.000000 -975.573396 299.676102
64.000000 -977.568063 299.822053
64.000000 -979.562731 299.968005
64.000000 -981.557398 300.113956
64.000000 -983.552066 300.259907
64.000000 -985.546733 300.405859
64.000000 -987.541400 300.551810
64.000000 -989.536068 300.697761
64.000000 -991.530735 300.843712
64.000000 -993.525403 300.989664
64.000000 -995.520070 301.135615
64.000000 -997.514738 301.281566
64.000000 -999.509405 301.427517
64.000000 -1001.504073 301.573469
64.000000 -1003.498740 301.719420
64.000000 -1005.493407 301.865371
64.000000 -1007.488075 302.011323
64.000000 -1009.482742 302.157274
64.000000 -1011.477410 302.303225
64.000000 -1013.472077 302.449176
64.000000 -1015.466745 302.595128
64.000000 -1017.461412 302.741079
64.000000 -1019.456080 302.887030
64.000000 -1021.450747 303.032981
64.000000 -1023.445415 303.178933
64.000000 -1025.440082 303.324884
64.000000 -1027.434749 303.470835
64.000000 -1029.429417 303.616787
64.000000 -1031.424084 303.762738
64.000000 -1033.418752 303.908689
64.000000 -1035.413419 304.054640
64.000000 -1037.408087 304.200592
64.000000 -1039.402754 304.346543
64.000000 -1041.397422 304.492494
64.000000 -1043.392089 304.638446
64.000000 -1045.386756 304.784397
64.000000 -1047.381424 304.930348
64.000000 -1049.376091 305.076299
64.000000 -1051.370759 305.222251
64.000000 -1053.365426 305.368202
64.000000 -1055.360094 305.514153
64.000000 -1057.354761 305.660104
64.000000 -1059.349429 305.806056
64.000000 -1061.344096 305.952007
64.000000 -1063.338763 306.097958
64.000000 -1065.333431 306.243910
64.000000 -1067.328098 306.389861
64.000000 -1069.322766 306.535812
64.000000 -1071.317433 306.681763
64.000000 -1073.312101 306.827715
64.000000 -1075.306768 306.973666
64.000000 -1077.301436 307.119617
64.000000 -1079.296103 307.265569
64.000000 -1081.290770 307.411520
64.000000 -1083.285438 307.557471
64.000000 -1085.280105 307.703422
64.000000 -1087.274773 307.849374
64.000000 -1089.269440 307.995325
64.000000 -1091.264108 308.141276
64.000000 -1093.258775 308.287227
64.000000 -1095.253443 308.433179
64.000000 -1097.248110 308.579130
64.000000 -1099.242778 308.725081
64.000000 -1101.237445 308.871033
64.000000 -1103.232112 309.016984
64.000000 -1105.226780 309.162935
64.000000 -1107.221447 309.308886
64.000000 -1109.216115 309.454838
64.000000 -1111.210782 309.600789
64.000000 -1113.205450 309.746740
64.000000 -1115.200117 309.892691
64.000000 -1117.194785 310.038643
64.000000 -1119.189452 310.184594
64.000000 -1121.184119 310.330545
64.000000 -1123.178787 310.476497
64.000000 -1125.173454 310.622448
64.000000 -1127.168122 310.768399
64.000000 -1129.162789 310.914350
64.000000 -1131.157457 311.060302
64.000000 -1133.152124 311.206253
64.000000 -1135.146792 311.352204
64.000000 -1137.141459 311.498156
64.000000 -1139.136126 311.644107
64.000000 -1141.130794 311.790058
64.000000 -1144.000000 312.000000
64.000000 -1146.000000 312.000000
64.000000 -1148.000000 312.000000
64.000000 -1150.000000 312.000000
64.000000 -1152.000000 312.000000
64.000000 -1154.000000 312.000000
64.000000 -1156.000000 312.000000
64.000000 -1158.000000 312.000000
64.000000 -1160.000000 312.000000
64.000000 -1162.000000 312.000000
64.000000 -1164.000000 312.000000
64.000000 -1166.000000 312.000000
64.000000 -1168.000000 312.000000
64.000000 -1170.000000 312.000000
64.000000 -1172.000000 312.000000
64.000000 -1174.000000 312.000000
64.000000 -1176.000000 312.000000
64.000000 -1178.000000 312.000000
64.000000 -1180.000000 312.000000
64.000000 -1182.000000 312.000000
64.000000 -1184.000000 312.000000
64.000000 -1186.000000 312.000000
64.000000 -1188.000000 312.000000
64.000000 -1190.000000 312.000000
64.000000 -1192.000000 312.000000
64.000000 -1194.000000 312.000000
64.000000 -1196.000000 312.000000
64.000000 -1198.000000 312.000000
64.000000 -1200.000000 312.000000
64.000000 -1202.000000 312.000000
64.000000 -1204.000000 312.000000
64.000000 -1206.000000 312.000000
64.000000 -1208.000000 312.000000
64.000000 -1210.000000 312.000000
64.000000 -1212.000000 312.000000
64.000000 -1214.000000 312.000000
64.000000 -1216.000000 312.000000
64.000000 -1218.000000 312.000000
64.000000 -1220.000000 312.000000
64.000000 -1222.000000 312.000000
64.000000 -1224.000000 312.000000
64.000000 -1226.000000 312.000000
64.000000 -1228.000000 312.000000
64.000000 -1230.000000 312.000000
64.000000 -1232.000000 312.000000
64.000000 -1234.000000 312.000000
64.000000 -1236.000000 312.000000
64.000000 -1238.000000 312.000000
64.000000 -1240.000000 312.000000
64.000000 -1242.000000 312.000000
64.000000 -1244.000000 312.000000
64.000000 -1246.000000 312.000000
64.000000 -1248.000000 312.000000
64.000000 -1250.000000 312.000000
64.000000 -1252.000000 312.000000
64.000000 -1254.000000 312.000000
64.000000 -1256.000000 312.000000
64.000000 -1258.000000 312.000000
64.000000 -1260.000000 312.000000
64.000000 -1262.000000 312.000000
64.000000 -1264.000000 312.000000
64.000000 -1266.000000 312.000000
64.000000 -1268.000000 312.000000
64.000000 -1270.000000 312.000000
64.000000 -1272.000000 312.000000
64.000000 -1274.000000 312.000000
64.000000 -1276.000000 312.000000
64.000000 -1278.000000 312.000000
64.000000 -1280.000000 312.000000
64.000000 -1282.000000 312.000000
64.000000 -1284.000000 312.000000
64.000000 -1286.000000 312.000000
64.000000 -1288.000000 312.000000
64.000000 -1290.000000 312.000000
64.000000 -1292.000000 312.000000
64.000000 -1294.000000 312.000000
64.000000 -1296.000000 312.000000
64.000000 -1298.000000 312.000000
64.000000 -1300.000000 312.000000
64.000000 -1302.000000 312.000000
64.000000 -1304.000000 312.000000
64.000000 -1306.000000 312.000000
64.000000 -1308.000000 312.000000
64.000000 -1310.000000 312.000000
64.000000 -1312.000000 312.000000
64.000000 -1314.000000 312.000000
64.000000 -1316.000000 312.000000
64.000000 -1318.000000 312.000000
64.000000 -1320.000000 312.000000
64.000000 -1322.000000 312.000000
64.000000 -1324.000000 312.000000
64.000000 -1326.000000 312.000000
64.000000 -1328.000000 312.000000
64.000000 -1330.000000 312.000000
64.000000 -1332.000000 312.000000
64.000000 -1334.000000 312.000000
64.000000 -1336.000000 312.000000
64.000000 -1338.000000 312.000000
64.000000 -1340.000000 312.000000
64.000000 -1342.000000 312.000000
64.000000 -1344.000000 312.000000
64.000000 -1346.000000 312.000000
64.000000 -1348.000000 312.000000
64.000000 -1350.000000 312.000000
64.000000 -1352.000000 312.000000
64.000000 -1354.000000 312.000000
64.000000 -1356.000000 312.000000
64.000000 -1358.000000 312.000000
64.000000 -1360.000000 312.000000
64.000000 -1362.000000 312.000000
64.000000 -1364.000000 312.000000
64.000000 -1366.000000 312.000000
64.000000 -1368.000000 312.000000
64.000000 -1370.000000 312.000000
64.000000 -1372.000000 312.000000
64.000000 -1374.000000 312.000000
64.000000 -1376.000000 312.000000
64.000000 -1378.000000 312.000000
64.000000 -1380.000000 312.000000
64.000000 -1382.000000 312.000000
64.000000 -1384.000000 312.000000
64.000000 -1386.000000 312.000000
64.000000 -1388.000000 312.000000
64.000000 -1390.000000 312.000000
64.000000 -1392.000000 312.000000
64.000000 -1394.000000 312.000000
64.000000 -1396.000000 312.000000
64.000000 -1398.000000 312.000000
64.000000 -1400.000000 312.000000
64.000000 -1402.000000 312.000000
64.000000 -1404.000000 312.000000
64.000000 -1406.000000 312.000000
64.000000 -1408.000000 312.000000
64.000000 -1410.000000 312.000000
64.000000 -1412.000000 312.000000
64.000000 -1414.000000 312.000000
64.000000 -1416.000000 312.000000
64.000000 -1418.000000 312.000000
64.000000 -1420.000000 312.000000
64.000000 -1422.000000 312.000000
64.000000 -1424.000000 312.000000
64.000000 -1426.000000 312.000000
64.000000 -1428.000000 312.000000
64.000000 -1430.000000 312.000000
64.000000 -1432.000000 312.000000
64.000000 -1434.000000 312.000000
64.000000 -1436.000000 312.000000
64.000000 -1438.000000 312.000000
64.000000 -1440.000000 312.000000
64.000000 -1442.000000 312.000000
64.000000 -1444.000000 312.000000
64.000000 -1446.000000 312.000000
64.000000 -1448.000000 312.000000
64.000000 -1450.000000 312.000000
64.000000 -1452.000000 312.000000
64.000000 -1456.000000 312.000000
64.000000 -1456.463241 313.945612
64.000000 -1456.926482 315.891225
64.000000 -1457.389723 317.836837
64.000000 -1457.852964 319.782450
64.000000 -1458.316205 321.728062
64.000000 -1458.779446 323.673675
64.000000 -1459.242687 325.619287
64.000000 -1459.705928 327.564899
64.000000 -1460.169169 329.510512
64.000000 -1460.632411 331.456124
64.000000 -1461.095652 333.401737
64.000000 -1461.558893 335.347349
64.000000 -1462.022134 337.292962
64.000000 -1462.485375 339.238574
64.000000 -1462.948616 341.184186
64.000000 -1463.411857 343.129799
64.000000 -1463.875098 345.075411
64.000000 -1464.338339 347.021024
64.000000 -1464.801580 348.966636
64.000000 -1465.264821 350.912249
64.000000 -1465.728062 352.857861
64.000000 -1466.191303 354.803473
64.000000 -1466.654544 356.749086
64.000000 -1467.117785 358.694698
64.000000 -1467.581026 360.640311
64.000000 -1468.044267 362.585923
64.000000 -1468.507508 364.531536
64.000000 -1468.970750 366.477148
64.000000 -1469.433991 368.422760
64.000000 -1469.897232 370.368373
64.000000 -1470.360473 372.313985
64.000000 -1470.823714 374.259598
64.000000 -1471.286955 376.205210
64.000000 -1471.750196 378.150823
64.000000 -1472.213437 380.096435
64.000000 -1472.676678 382.042047
64.000000 -1473.139919 383.987660
64.000000 -1473.603160 385.933272
64.000000 -1474.066401 387.878885
64.000000 -1474.529642 389.824497
64.000000 -1474.992883 391.770110
64.000000 -1475.456124 393.715722
64.000000 -1475.919365 395.661334
64.000000 -1476.382606 397.606947
64.000000 -1476.845847 399.552559
64.000000 -1477.309089 401.498172
64.000000 -1477.772330 403.443784
64.000000 -1478.235571 405.389397
64.000000 -1478.698812 407.335009
64.000000 -1479.162053 409.280621
64.000000 -1479.625294 411.226234
64.000000 -1480.088535 413.171846
64.000000 -1480.551776 415.117459
64.000000 -1481.015017 417.063071
64.000000 -1481.478258 419.008684
64.000000 -1481.941499 420.954296
64.000000 -1482.404740 422.899908
64.000000 -1482.867981 424.845521
64.000000 -1483.331222 426.791133
64.000000 -1483.794463 428.736746
64.000000 -1484.257704 430.682358
64.000000 -1484.720945 432.627971
64.000000 -1485.184186 434.573583
64.000000 -1485.647427 436.519195
64.000000 -1486.110669 438.464808
64.000000 -1486.573910 440.410420
64.000000 -1487.037151 442.356033
64.000000 -1487.500392 444.301645
64.000000 -1487.963633 446.247258
64.000000 -1488.426874 448.192870
64.000000 -1488.890115 450.138482
64.000000 -1489.353356 452.084095
64.000000 -1489.816597 454.029707
64.000000 -1490.279838 455.975320
64.000000 -1490.743079 457.920932
64.000000 -1491.206320 459.866545
64.000000 -1491.669561 461.812157
64.000000 -1492.132802 463.757769
64.000000 -1492.596043 465.703382
64.000000 -1493.059284 467.648994
64.000000 -1493.522525 469.594607
64.000000 -1493.985766 471.540219
64.000000 -1494.449008 473.485832
64.000000 -1494.912249 475.431444
64.000000 -1495.375490 477.377056
64.000000 -1496.000000 480.000000
63.283698 -1497.841920 480.306987
62.567395 -1499.683840 480.613973
61.851093 -1501.525761 480.920960
61.134791 -1503.367681 481.227947
60.418488 -1505.209601 481.534934
59.702186 -1507.051521 481.841920
58.985884 -1508.893442 482.148907
58.269581 -1510.735362 482.455894
57.553279 -1512.577282 482.762880
56.836977 -1514.419202 483.069867
56.120675 -1516.261123 483.376854
55.404372 -1518.103043 483.683840
54.688070 -1519.944963 483.990827
53.971768 -1521.786883 484.297814
53.255465 -1523.628804 484.604801
52.539163 -1525.470724 484.911787
51.822861 -1527.312644 485.218774
51.106558 -1529.154564 485.525761
50.390256 -1530.996484 485.832747
49.673954 -1532.838405 486.139734
48.957651 -1534.680325 486.446721
48.241349 -1536.522245 486.753708
47.525047 -1538.364165 487.060694
46.808744 -1540.206086 487.367681
46.092442 -1542.048006 487.674668
45.376140 -1543.889926 487.981654
44.659838 -1545.731846 488.288641
43.943535 -1547.573767 488.595628
43.227233 -1549.415687 488.902614
42.510931 -1551.257607 489.209601
41.794628 -1553.099527 489.516588
41.078326 -1554.941448 489.823575
40.362024 -1556.783368 490.130561
39.645721 -1558.625288 490.437548
38.929419 -1560.467208 490.744535
38.213117 -1562.309129 491.051521
37.496814 -1564.151049 491.358508
36.780512 -1565.992969 491.665495
36.000000 -1568.000000 492.000000
36.557890 -1569.572236 490.896899
37.115780 -1571.144472 489.793798
37.673671 -1572.716708 488.690697
38.231561 -1574.288944 487.587595
38.789451 -1575.861181 486.484494
39.347341 -1577.433417 485.381393
39.905232 -1579.005653 484.278292
40.463122 -1580.577889 483.175191
41.021012 -1582.150125 482.072090
41.578902 -1583.722361 480.968989
42.136793 -1585.294597 479.865887
42.694683 -1586.866833 478.762786
43.252573 -1588.439069 477.659685
43.810463 -1590.011305 476.556584
44.368353 -1591.583542 475.453483
44.926244 -1593.155778 474.350382
45.484134 -1594.728014 473.247281
46.042024 -1596.300250 472.144180
46.599914 -1597.872486 471.041078
47.157805 -1599.444722 469.937977
47.715695 -1601.016958 468.834876
48.273585 -1602.589194 467.731775
48.831475 -1604.161430 466.628674
49.389366 -1605.733667 465.525573
49.947256 -1607.305903 464.422472
50.505146 -1608.878139 463.319370
51.063036 -1610.450375 462.216269
51.620926 -1612.022611 461.113168
52.178817 -1613.594847 460.010067
52.736707 -1615.167083 458.906966
53.294597 -1616.739319 457.803865
53.852487 -1618.311555 456.700764
54.410378 -1619.883791 455.597662
54.968268 -1621.456028 454.494561
55.526158 -1623.028264 453.391460
56.084048 -1624.600500 452.288359
56.641939 -1626.172736 451.185258
57.199829 -1627.744972 450.082157
57.757719 -1629.317208 448.979056
58.315609 -1630.889444 447.875954
58.873499 -1632.461680 446.772853
59.431390 -1634.033916 445.669752
59.989280 -1635.606153 444.566651
60.547170 -1637.178389 443.463550
61.105060 -1638.750625 442.360449
61.662951 -1640.322861 441.257348
62.220841 -1641.895097 440.154247
62.778731 -1643.467333 439.051145
63.336621 -1645.039569 437.948044
63.894512 -1646.611805 436.844943
64.452402 -1648.184041 435.741842
65.010292 -1649.756277 434.638741
65.568182 -1651.328514 433.535640
66.126072 -1652.900750 432.432539
66.683963 -1654.472986 431.329437
67.241853 -1656.045222 430.226336
67.799743 -1657.617458 429.123235
68.357633 -1659.189694 428.020134
68.915524 -1660.761930 426.917033
69.473414 -1662.334166 425.813932
70.031304 -1663.906402 424.710831
70.589194 -1665.478639 423.607729
71.147085 -1667.050875 422.504628
71.704975 -1668.623111 421.401527
72.262865 -1670.195347 420.298426
72.820755 -1671.767583 419.195325
73.378645 -1673.339819 418.092224
73.936536 -1674.912055 416.989123
74.494426 -1676.484291 415.886021
75.052316 -1678.056527 414.782920
75.610206 -1679.628763 413.679819
76.168097 -1681.201000 412.576718
76.725987 -1682.773236 411.473617
77.283877 -1684.345472 410.370516
77.841767 -1685.917708 409.267415
78.399658 -1687.489944 408.164314
78.957548 -1689.062180 407.061212
79.515438 -1690.634416 405.958111
80.073328 -1692.206652 404.855010
80.631218 -1693.778888 403.751909
81.189109 -1695.351124 402.648808
81.746999 -1696.923361 401.545707
82.304889 -1698.495597 400.442606
82.862779 -1700.067833 399.339504
83.420670 -1701.640069 398.236403
83.978560 -1703.212305 397.133302
84.536450 -1704.784541 396.030201
85.094340 -1706.356777 394.927100
85.652231 -1707.929013 393.823999
86.210121 -1709.501249 392.720898
86.768011 -1711.073486 391.617796
87.325901 -1712.645722 390.514695
87.883791 -1714.217958 389.411594
88.441682 -1715.790194 388.308493
88.999572 -1717.362430 387.205392
89.557462 -1718.934666 386.102291
90.115352 -1720.506902 384.999190
90.673243 -1722.079138 383.896088
91.231133 -1723.651374 382.792987
91.789023 -1725.223610 381.689886
92.346913 -1726.795847 380.586785
92.904804 -1728.368083 379.483684
93.462694 -1729.940319 378.380583
94.020584 -1731.512555 377.277482
94.578474 -1733.084791 376.174380
95.136364 -1734.657027 375.071279
95.694255 -1736.229263 373.968178
96.252145 -1737.801499 372.865077
96.810035 -1739.373735 371.761976
97.367925 -1740.945972 370.658875
97.925816 -1742.518208 369.555774
98.483706 -1744.090444 368.452673
99.041596 -1745.662680 367.349571
99.599486 -1747.234916 366.246470
100.157377 -1748.807152 365.143369
100.715267 -1750.379388 364.040268
101.273157 -1751.951624 362.937167
101.831047 -1753.523860 361.834066
102.388937 -1755.096096 360.730965
102.946828 -1756.668333 359.627863
103.504718 -1758.240569 358.524762
104.062608 -1759.812805 357.421661
104.620498 -1761.385041 356.318560
105.178389 -1762.957277 355.215459
105.736279 -1764.529513 354.112358
106.294169 -1766.101749 353.009257
106.852059 -1767.673985 351.906155
107.409950 -1769.246221 350.803054
107.967840 -1770.818458 349.699953
108.525730 -1772.390694 348.596852
109.083620 -1773.962930 347.493751
109.641510 -1775.535166 346.390650
110.199401 -1777.107402 345.287549
110.757291 -1778.679638 344.184447
111.315181 -1780.251874 343.081346
111.873071 -1781.824110 341.978245
112.430962 -1783.396346 340.875144
112.988852 -1784.968582 339.772043
113.546742 -1786.540819 338.668942
114.104632 -1788.113055 337.565841
114.662523 -1789.685291 336.462740
115.220413 -1791.257527 335.359638
115.778303 -1792.829763 334.256537
116.336193 -1794.401999 333.153436
116.894083 -1795.974235 332.050335
117.451974 -1797.546471 330.947234
118.009864 -1799.118707 329.844133
118.567754 -1800.690944 328.741032
119.125644 -1802.263180 327.637930
119.683535 -1803.835416 326.534829
120.241425 -1805.407652 325.431728
120.799315 -1806.979888 324.328627
121.357205 -1808.552124 323.225526
121.915096 -1810.124360 322.122425
122.472986 -1811.696596 321.019324
123.030876 -1813.268832 319.916222
123.588766 -1814.841068 318.813121
124.146656 -1816.413305 317.710020
124.704547 -1817.985541 316.606919
125.262437 -1819.557777 315.503818
125.820327 -1821.130013 314.400717
126.378217 -1822.702249 313.297616
126.936108 -1824.274485 312.194514
127.493998 -1825.846721 311.091413
128.051888 -1827.418957 309.988312
128.609778 -1828.991193 308.885211
129.167669 -1830.563430 307.782110
129.725559 -1832.135666 306.679009
130.283449 -1833.707902 305.575908
130.841339 -1835.280138 304.472807
131.399229 -1836.852374 303.369705
131.957120 -1838.424610 302.266604
132.515010 -1839.996846 301.163503
133.072900 -1841.569082 300.060402
133.630790 -1843.141318 298.957301
134.188681 -1844.713554 297.854200
134.746571 -1846.285791 296.751099
135.304461 -1847.858027 295.647997
135.862351 -1849.430263 294.544896
136.420242 -1851.002499 293.441795
136.978132 -1852.574735 292.338694
137.536022 -1854.146971 291.235593
138.093912 -1855.719207 290.132492
138.651802 -1857.291443 289.029391
139.209693 -1858.863679 287.926289
139.767583 -1860.435916 286.823188
140.325473 -1862.008152 285.720087
140.883363 -1863.580388 284.616986
141.441254 -1865.152624 283.513885
141.999144 -1866.724860 282.410784
142.557034 -1868.297096 281.307683
143.114924 -1869.869332 280.204581
143.672815 -1871.441568 279.101480
144.230705 -1873.013804 277.998379
144.788595 -1874.586040 276.895278
145.346485 -1876.158277 275.792177
145.904375 -1877.730513 274.689076
146.462266 -1879.302749 273.585975
147.020156 -1880.874985 272.482874
147.578046 -1882.447221 271.379772
148.135936 -1884.019457 270.276671
148.693827 -1885.591693 269.173570
149.251717 -1887.163929 268.070469
149.809607 -1888.736165 266.967368
150.367497 -1890.308402 265.864267
150.925388 -1891.880638 264.761166
151.483278 -1893.452874 263.658064
152.041168 -1895.025110 262.554963
152.599058 -1896.597346 261.451862
153.156948 -1898.169582 260.348761
153.714839 -1899.741818 259.245660
154.272729 -1901.314054 258.142559
154.830619 -1902.886290 257.039458
155.388509 -1904.458526 255.936356
155.946400 -1906.030763 254.833255
156.504290 -1907.602999 253.730154
157.062180 -1909.175235 252.627053
157.620070 -1910.747471 251.523952
158.177961 -1912.319707 250.420851
158.735851 -1913.891943 249.317750
159.293741 -1915.464179 248.214648
159.851631 -1917.036415 247.111547
160.409521 -1918.608651 246.008446
160.967412 -1920.180887 244.905345
161.525302 -1921.753124 243.802244
162.083192 -1923.325360 242.699143
162.641082 -1924.897596 241.596042
163.198973 -1926.469832 240.492941
163.756863 -1928.042068 239.389839
164.314753 -1929.614304 238.286738
164.872643 -1931.186540 237.183637
165.430534 -1932.758776 236.080536
165.988424 -1934.331012 234.977435
166.546314 -1935.903249 233.874334
167.104204 -1937.475485 232.771233
167.662094 -1939.047721 231.668131
168.219985 -1940.619957 230.565030
168.777875 -1942.192193 229.461929
169.335765 -1943.764429 228.358828
169.893655 -1945.336665 227.255727
170.451546 -1946.908901 226.152626
171.009436 -1948.481137 225.049525
171.567326 -1950.053373 223.946423
172.125216 -1951.625610 222.843322
172.683107 -1953.197846 221.740221
173.240997 -1954.770082 220.637120
173.798887 -1956.342318 219.534019
174.356777 -1957.914554 218.430918
174.914667 -1959.486790 217.327817
175.472558 -1961.059026 216.224715
176.030448 -1962.631262 215.121614
176.588338 -1964.203498 214.018513
177.146228 -1965.775735 212.915412
177.704119 -1967.347971 211.812311
178.262009 -1968.920207 210.709210
178.819899 -1970.492443 209.606109
179.377789 -1972.064679 208.503008
179.935680 -1973.636915 207.399906
180.493570 -1975.209151 206.296805
181.051460 -1976.781387 205.193704
181.609350 -1978.353623 204.090603
182.167240 -1979.925859 202.987502
182.725131 -1981.498096 201.884401
183.283021 -1983.070332 200.781300
183.840911 -1984.642568 199.678198
184.398801 -1986.214804 198.575097
184.956692 -1987.787040 197.471996
185.514582 -1989.359276 196.368895
186.072472 -1990.931512 195.265794
186.630362 -1992.503748 194.162693
187.188253 -1994.075984 193.059592
187.746143 -1995.648221 191.956490
188.304033 -1997.220457 190.853389
188.861923 -1998.792693 189.750288
189.419813 -2000.364929 188.647187
189.977704 -2001.937165 187.544086
190.535594 -2003.509401 186.440985
191.093484 -2005.081637 185.337884
191.651374 -2006.653873 184.234782
192.209265 -2008.226109 183.131681
192.767155 -2009.798345 182.028580
193.325045 -2011.370582 180.925479
193.882935 -2012.942818 179.822378
194.440826 -2014.515054 178.719277
194.998716 -2016.087290 177.616176
195.556606 -2017.659526 176.513075
196.114496 -2019.231762 175.409973
196.672386 -2020.803998 174.306872
197.230277 -2022.376234 173.203771
197.788167 -2023.948470 172.100670
198.346057 -2025.520707 170.997569
198.903947 -2027.092943 169.894468
199.461838 -2028.665179 168.791367
200.019728 -2030.237415 167.688265
200.577618 -2031.809651 166.585164
201.135508 -2033.381887 165.482063
201.693399 -2034.954123 164.378962
202.251289 -2036.526359 163.275861
202.809179 -2038.098595 162.172760
203.367069 -2039.670831 161.069659
203.924959 -2041.243068 159.966557
204.482850 -2042.815304 158.863456
205.040740 -2044.387540 157.760355
205.598630 -2045.959776 156.657254
206.156520 -2047.532012 155.554153
206.714411 -2049.104248 154.451052
207.272301 -2050.676484 153.347951
207.830191 -2052.248720 152.244849
208.388081 -2053.820956 151.141748
208.945972 -2055.393193 150.038647
209.503862 -2056.965429 148.935546
210.061752 -2058.537665 147.832445
210.619642 -2060.109901 146.729344
211.177532 -2061.682137 145.626243
212.000000 -2064.000000 144.000000
212.000000 -2066.000000 144.000000
212.000000 -2068.000000 144.000000
212.000000 -2070.000000 144.000000
212.000000 -2072.000000 144.000000
212.000000 -2074.000000 144.000000
212.000000 -2076.000000 144.000000
212.000000 -2078.000000 144.000000
212.000000 -2080.000000 144.000000
212.000000 -2082.000000 144.000000
212.000000 -2084.000000 144.000000
212.000000 -2086.000000 144.000000
212.000000 -2088.000000 144.000000
212.000000 -2090.000000 144.000000
212.000000 -2092.000000 144.000000
212.000000 -2094.000000 144.000000
212.000000 -2096.000000 144.000000
212.000000 -2098.000000 144.000000
212.000000 -2100.000000 144.000000
212.000000 -2102.000000 144.000000
212.000000 -2104.000000 144.000000
212.000000 -2106.000000 144.000000
212.000000 -2108.000000 144.000000
212.000000 -2110.000000 144.000000
212.000000 -2112.000000 144.000000
212.000000 -2114.000000 144.000000
212.000000 -2116.000000 144.000000
212.000000 -2118.000000 144.000000
212.000000 -2120.000000 144.000000
212.000000 -2122.000000 144.000000
212.000000 -2124.000000 144.000000
212.000000 -2126.000000 144.000000
212.000000 -2128.000000 144.000000
212.000000 -2130.000000 144.000000
212.000000 -2132.000000 144.000000
212.000000 -2134.000000 144.000000
212.000000 -2136.000000 144.000000
212.000000 -2138.000000 144.000000
212.000000 -2140.000000 144.000000
212.000000 -2142.000000 144.000000
212.000000 -2144.000000 144.000000
212.000000 -2146.000000 144.000000
212.000000 -2148.000000 144.000000
212.000000 -2150.000000 144.000000
212.000000 -2152.000000 144.000000
212.000000 -2154.000000 144.000000
212.000000 -2156.000000 144.000000
212.000000 -2158.000000 144.000000
212.000000 -2160.000000 144.000000
212.000000 -2162.000000 144.000000
212.000000 -2164.000000 144.000000
212.000000 -2166.000000 144.000000
212.000000 -2168.000000 144.000000
212.000000 -2170.000000 144.000000
212.000000 -2172.000000 144.000000
212.000000 -2174.000000 144.000000
212.000000 -2176.000000 144.000000
212.000000 -2178.000000 144.000000
212.000000 -2180.000000 144.000000
212.000000 -2182.000000 144.000000
212.000000 -2184.000000 144.000000
212.000000 -2186.000000 144.000000
212.000000 -2188.000000 144.000000
212.000000 -2190.000000 144.000000
212.000000 -2192.000000 144.000000
212.000000 -2194.000000 144.000000
212.000000 -2196.000000 144.000000
212.000000 -2198.000000 144.000000
212.000000 -2200.000000 144.000000
212.000000 -2202.000000 144.000000
212.000000 -2204.000000 144.000000
212.000000 -2206.000000 144.000000
212.000000 -2208.000000 144.000000
212.000000 -2210.000000 144.000000
212.000000 -2212.000000 144.000000
212.000000 -2214.000000 144.000000
212.000000 -2216.000000 144.000000
212.000000 -2218.000000 144.000000
212.000000 -2220.000000 144.000000
212.000000 -2222.000000 144.000000
212.000000 -2224.000000 144.000000
212.000000 -2226.000000 144.000000
212.000000 -2228.000000 144.000000
212.000000 -2230.000000 144.000000
212.000000 -2232.000000 144.000000
212.000000 -2234.000000 144.000000
212.000000 -2236.000000 144.000000
212.000000 -2238.000000 144.000000
212.000000 -2240.000000 144.000000
212.000000 -2242.000000 144.000000
212.000000 -2244.000000 144.000000
212.000000 -2246.000000 144.000000
212.000000 -2248.000000 144.000000
212.000000 -2250.000000 144.000000
212.000000 -2252.000000 144.000000
212.000000 -2254.000000 144.000000
212.000000 -2256.000000 144.000000
212.000000 -2258.000000 144.000000
212.000000 -2260.000000 144.000000
212.000000 -2262.000000 144.000000
212.000000 -2264.000000 144.000000
212.000000 -2266.000000 144.000000
212.000000 -2268.000000 144.000000
212.000000 -2270.000000 144.000000
212.000000 -2272.000000 144.000000
212.000000 -2274.000000 144.000000
212.000000 -2276.000000 144.000000
212.000000 -2278.000000 144.000000
212.000000 -2280.000000 144.000000
212.000000 -2282.000000 144.000000
212.000000 -2284.000000 144.000000
212.000000 -2286.000000 144.000000
212.000000 -2288.000000 144.000000
212.000000 -2290.000000 144.000000
212.000000 -2292.000000 144.000000
212.000000 -2294.000000 144.000000
212.000000 -2296.000000 144.000000
212.000000 -2298.000000 144.000000
212.000000 -2300.000000 144.000000
212.000000 -2302.000000 144.000000
212.000000 -2304.000000 144.000000
212.000000 -2306.000000 144.000000
212.000000 -2308.000000 144.000000
212.000000 -2310.000000 144.000000
212.000000 -2312.000000 144.000000
212.000000 -2314.000000 144.000000
212.000000 -2316.000000 144.000000
212.000000 -2318.000000 144.000000
212.000000 -2320.000000 144.000000
212.000000 -2322.000000 144.000000
212.000000 -2324.000000 144.000000
212.000000 -2326.000000 144.000000
212.000000 -2328.000000 144.000000
212.000000 -2330.000000 144.000000
212.000000 -2332.000000 144.000000
212.000000 -2334.000000 144.000000
212.000000 -2336.000000 144.000000
212.000000 -2338.000000 144.000000
212.000000 -2340.000000 144.000000
212.000000 -2342.000000 144.000000
212.000000 -2344.000000 144.000000
212.000000 -2346.000000 144.000000
212.000000 -2348.000000 144.000000
212.000000 -2350.000000 144.000000
212.000000 -2352.000000 144.000000
212.000000 -2354.000000 144.000000
212.000000 -2356.000000 144.000000
212.000000 -2358.000000 144.000000
212.000000 -2360.000000 144.000000
212.000000 -2362.000000 144.000000
212.000000 -2364.000000 144.000000
212.000000 -2368.000000 144.000000
212.000000 -2369.987211 143.774181
212.000000 -2371.974421 143.548361
212.000000 -2373.961632 143.322542
212.000000 -2375.948842 143.096722
212.000000 -2377.936053 142.870903
212.000000 -2379.923263 142.645084
212.000000 -2381.910474 142.419264
212.000000 -2383.897684 142.193445
212.000000 -2385.884895 141.967626
212.000000 -2387.872105 141.741806
212.000000 -2389.859316 141.515987
212.000000 -2391.846526 141.290167
212.000000 -2393.833737 141.064348
212.000000 -2395.820947 140.838529
212.000000 -2397.808158 140.612709
212.000000 -2399.795368 140.386890
212.000000 -2401.782579 140.161071
212.000000 -2403.769789 139.935251
212.000000 -2405.757000 139.709432
212.000000 -2407.744210 139.483612
212.000000 -2409.731421 139.257793
212.000000 -2411.718631 139.031974
212.000000 -2413.705842 138.806154
212.000000 -2415.693052 138.580335
212.000000 -2417.680263 138.354516
212.000000 -2419.667473 138.128696
212.000000 -2421.654684 137.902877
212.000000 -2423.641894 137.677057
212.000000 -2425.629105 137.451238
212.000000 -2427.616315 137.225419
212.000000 -2429.603526 136.999599
212.000000 -2431.590736 136.773780
212.000000 -2433.577947 136.547961
212.000000 -2435.565157 136.322141
212.000000 -2437.552368 136.096322
212.000000 -2439.539578 135.870502
212.000000 -2441.526789 135.644683
212.000000 -2443.513999 135.418864
212.000000 -2445.501210 135.193044
212.000000 -2447.488420 134.967225
212.000000 -2449.475631 134.741406
212.000000 -2451.462841 134.515586
212.000000 -2453.450052 134.289767
212.000000 -2455.437262 134.063947
212.000000 -2457.424473 133.838128
212.000000 -2459.411683 133.612309
212.000000 -2461.398894 133.386489
212.000000 -2463.386104 133.160670
212.000000 -2465.373315 132.934851
212.000000 -2467.360525 132.709031
212.000000 -2469.347736 132.483212
212.000000 -2471.334946 132.257392
212.000000 -2473.322157 132.031573
212.000000 -2475.309368 131.805754
212.000000 -2477.296578 131.579934
212.000000 -2479.283789 131.354115
212.000000 -2481.270999 131.128296
212.000000 -2483.258210 130.902476
212.000000 -2485.245420 130.676657
212.000000 -2487.232631 130.450837
212.000000 -2489.219841 130.225018
212.000000 -2491.207052 129.999199
212.000000 -2493.194262 129.773379
212.000000 -2495.181473 129.547560
212.000000 -2497.168683 129.321741
212.000000 -2499.155894 129.095921
212.000000 -2501.143104 128.870102
212.000000 -2503.130315 128.644282
212.000000 -2505.117525 128.418463
212.000000 -2507.104736 128.192644
212.000000 -2509.091946 127.966824
212.000000 -2511.079157 127.741005
212.000000 -2513.066367 127.515186
212.000000 -2515.053578 127.289366
212.000000 -2517.040788 127.063547
212.000000 -2519.027999 126.837727
212.000000 -2521.015209 126.611908
212.000000 -2523.002420 126.386089
212.000000 -2524.989630 126.160269
212.000000 -2526.976841 125.934450
212.000000 -2528.964051 125.708631
212.000000 -2530.951262 125.482811
212.000000 -2532.938472 125.256992
212.000000 -2534.925683 125.031172
212.000000 -2536.912893 124.805353
212.000000 -2538.900104 124.579534
212.000000 -2540.887314 124.353714
212.000000 -2542.874525 124.127895
212.000000 -2544.861735 123.902076
212.000000 -2546.848946 123.676256
212.000000 -2548.836156 123.450437
212.000000 -2550.823367 123.224617
212.000000 -2552.810577 122.998798
212.000000 -2554.797788 122.772979
212.000000 -2556.784998 122.547159
212.000000 -2558.772209 122.321340
212.000000 -2560.759419 122.095521
212.000000 -2562.746630 121.869701
212.000000 -2564.733840 121.643882
212.000000 -2566.721051 121.418062
212.000000 -2568.708261 121.192243
212.000000 -2570.695472 120.966424
212.000000 -2572.682682 120.740604
212.000000 -2574.669893 120.514785
212.000000 -2576.657104 120.288966
212.000000 -2578.644314 120.063146
212.000000 -2580.631525 119.837327
212.000000 -2582.618735 119.611507
212.000000 -2584.605946 119.385688
212.000000 -2586.593156 119.159869
212.000000 -2588.580367 118.934049
212.000000 -2590.567577 118.708230
212.000000 -2592.554788 118.482411
212.000000 -2594.541998 118.256591
212.000000 -2596.529209 118.030772
212.000000 -2598.516419 117.804952
212.000000 -2600.503630 117.579133
212.000000 -2602.490840 117.353314
212.000000 -2604.478051 117.127494
212.000000 -2606.465261 116.901675
212.000000 -2608.452472 116.675855
212.000000 -2610.439682 116.450036
212.000000 -2612.426893 116.224217
212.000000 -2614.414103 115.998397
212.000000 -2616.401314 115.772578
212.000000 -2618.388524 115.546759
212.000000 -2620.375735 115.320939
212.000000 -2622.362945 115.095120
212.000000 -2624.350156 114.869300
212.000000 -2626.337366 114.643481
212.000000 -2628.324577 114.417662
212.000000 -2630.311787 114.191842
212.000000 -2632.298998 113.966023
212.000000 -2634.286208 113.740204
212.000000 -2636.273419 113.514384
212.000000 -2638.260629 113.288565
212.000000 -2640.247840 113.062745
212.000000 -2642.235050 112.836926
212.000000 -2644.222261 112.611107
212.000000 -2646.209471 112.385287
212.000000 -2648.196682 112.159468
212.000000 -2650.183892 111.933649
212.000000 -2652.171103 111.707829
212.000000 -2654.158313 111.482010
212.000000 -2656.145524 111.256190
212.000000 -2658.132734 111.030371
212.000000 -2660.119945 110.804552
212.000000 -2662.107155 110.578732
212.000000 -2664.094366 110.352913
212.000000 -2666.081576 110.127094
212.000000 -2668.068787 109.901274
212.000000 -2670.055997 109.675455
212.000000 -2672.043208 109.449635
212.000000 -2674.030418 109.223816
212.000000 -2676.017629 108.997997
212.000000 -2678.004839 108.772177
212.000000 -2679.992050 108.546358
212.000000 -2681.979261 108.320539
212.000000 -2683.966471 108.094719
212.000000 -2685.953682 107.868900
212.000000 -2687.940892 107.643080
212.000000 -2689.928103 107.417261
212.000000 -2691.915313 107.191442
212.000000 -2693.902524 106.965622
212.000000 -2695.889734 106.739803
212.000000 -2697.876945 106.513984
212.000000 -2699.864155 106.288164
212.000000 -2701.851366 106.062345
212.000000 -2703.838576 105.836525
212.000000 -2705.825787 105.610706
212.000000 -2707.812997 105.384887
212.000000 -2709.800208 105.159067
212.000000 -2711.787418 104.933248
212.000000 -2713.774629 104.707429
212.000000 -2715.761839 104.481609
212.000000 -2717.749050 104.255790
